ply
format ascii 1.0
element vertex 1201
property float x
property float y
property float z
property uint8 red
property uint8 green
property uint8 blue
end_header
-42.752121 -27.401186 -28.950020 227 234 156
-3.340549 2.153812 -7.037413 206 221 166
-0.068754 1.375559 -0.444902 167 156 138
0.501906 1.594398 -1.115161 209 189 154
-3.747493 4.847762 -4.129317 117 130 104
-40.022076 -29.522465 -28.762775 150 164 84
0.150849 0.961886 -0.171548 181 151 117
1.122212 1.320949 -2.014715 157 163 189
-2.879883 3.829897 -5.153080 71 79 68
0.352175 11.273424 1.858201 0 0 0
-4.918033 3.399772 -5.539843 139 146 130
-3.741522 4.898148 -4.062851 121 139 104
-28.278301 -38.425568 -38.827118 145 118 88
-4.968399 3.297027 -5.698760 62 67 60
-5.132411 5.249735 -3.717079 177 179 168
-0.560974 1.983765 -0.440924 136 109 82
0.127661 0.979882 -0.175719 229 213 179
12.108428 -17.612354 -25.637173 122 160 83
-4.355319 5.051926 -3.918842 126 130 115
-41.174187 -31.896225 -28.528051 23 32 18
0.363207 0.979912 -2.447164 96 105 114
0.354249 1.240129 -0.382295 107 101 89
0.359128 0.853876 -2.522131 113 125 139
-37.849030 -40.915966 -31.614588 235 230 179
0.311466 -1.656541 -10.230996 173 195 157
-13.267800 13.112232 6.617488 176 164 148
0.230069 1.006230 -0.216200 108 95 76
-3.981469 5.138591 -3.898572 0 0 0
-11.384998 10.115615 0.788978 165 128 84
-1.072485 2.719491 -0.668123 137 147 159
-69.887505 -10.126787 -7.957400 88 100 60
0.270976 1.390918 -0.053529 210 170 127
-0.173240 1.786427 -0.743509 152 123 90
0.742818 5.822333 -1.234148 89 92 99
4.119346 5.330896 -1.600915 136 141 145
-6.427141 4.384529 -4.802083 189 192 172
-11.497483 10.070662 0.770610 241 209 162
-0.990382 2.836355 -0.635159 110 118 129
-79.343506 -11.814137 -9.095143 88 100 60
-2.394073 2.345235 -6.595217 98 123 89
-2.389073 5.390906 -3.720572 89 97 86
-38.310810 -35.650883 -25.811380 77 84 33
-2.508924 6.098225 -3.159914 62 81 49
-6.890136 4.516195 -4.739012 183 190 174
0.359276 1.230302 -1.640304 120 102 80
-6.603308 5.187353 -2.911848 150 162 178
-40.188629 -30.245096 -28.603127 40 49 28
-4.631026 1.721725 -7.727582 233 225 181
-0.184545 1.734089 -0.677919 182 144 95
-39.804207 -31.036270 -29.022093 143 165 90
-2.963370 1.864094 -7.389244 224 221 170
-4.565163 5.273458 -3.705615 88 96 75
0.587155 1.727293 -1.312916 170 141 109
-38.066914 -31.990011 -29.397066 102 120 58
-1.938788 4.964805 -4.054378 183 196 176
-2.548303 1.148366 -8.063715 255 248 207
-3.147824 5.331396 -3.553238 99 114 93
-39.868141 -41.523041 -29.903204 123 122 87
-7.245839 4.737215 -5.436532 136 137 123
-7.386678 4.530781 -4.654342 94 115 74
0.318060 1.176258 -1.610290 115 104 77
-0.113090 1.518524 -0.599694 131 99 50
-34.085396 -37.489220 -34.015598 209 225 130
-3.981163 -1.337963 -10.685562 141 150 131
0.394898 2.934227 -0.404702 158 160 175
-0.033195 1.432980 -1.254207 230 210 171
6.635651 8.384262 2.166522 255 253 234
-4.041644 5.437471 -3.545281 121 121 101
-34.622917 -48.636627 -36.482738 255 236 203
-6.726980 4.392932 -5.603248 170 179 162
-5.655527 4.947775 -3.996028 179 182 165
-21.980787 11.460957 5.514948 203 191 169
-11.935286 9.115019 -0.464660 190 185 169
-0.231936 3.591156 -5.383324 34 35 30
-0.572892 3.033030 -0.435722 147 153 165
-4.036334 5.510589 -3.516081 204 212 189
-36.060040 -48.173336 -34.217270 248 209 150
0.191301 1.478236 -0.616082 126 116 82
-0.065873 1.099573 -2.317795 137 152 167
-3.366371 5.492222 -3.524224 153 165 143
-37.613613 -47.492584 -32.486942 229 234 193
7.016489 8.979682 1.010089 20 21 25
-3.094136 5.472382 -3.491368 218 229 214
-39.167938 -48.490582 -31.251154 182 160 123
-4.036830 3.775202 -5.337393 124 139 118
-0.610833 2.056011 -0.660940 145 111 68
-7.667459 2.818233 -6.167915 161 150 80
-21.937971 11.745995 6.083468 0 0 0
0.338101 0.970280 -2.433275 129 139 149
-37.486996 -50.195663 -33.153431 250 235 202
-0.860213 4.679945 -4.138227 45 44 40
70.805931 -13.919271 0.554048 97 98 84
-15.092888 9.272995 0.130685 128 114 101
-23.116272 -50.251522 -35.914352 30 30 19
-1.506237 4.736483 -4.074097 27 36 17
-9.072215 4.007521 -6.789605 238 230 181
-4.835907 5.923313 -3.232309 0 0 0
0.003368 1.822945 -0.883707 119 93 58
-3.227695 5.482898 -3.446666 60 72 49
-21.300751 -47.683849 -34.350792 252 253 255
-4.930153 3.156086 -5.829305 159 169 150
0.332582 1.789000 -1.591841 77 79 91
-3.437951 5.239885 -3.724622 0 0 0
-0.192359 2.437521 -0.143156 198 154 115
-2.173823 3.911099 -5.141989 86 98 82
-0.311225 1.822006 -0.623362 119 91 51
-0.099087 1.439530 -0.469905 174 156 121
1.200123 1.210510 -2.172769 110 117 135
9.724995 11.760711 19.212616 247 235 209
-5.792581 4.950283 -4.016383 163 171 150
-0.261816 3.064426 -0.405465 166 173 192
-4.952805 5.984601 -3.590261 65 67 56
-6.330305 2.825733 -6.599482 0 0 0
-1.904928 4.779320 -4.231391 34 29 25
-87.170143 -6.518770 -10.314144 82 101 45
-3.205806 2.837228 -6.326882 145 158 141
-5.192405 3.643775 -5.355163 171 182 165
-34.292698 -26.691982 -31.462006 162 165 91
-28.372175 -44.008266 -39.783707 229 195 155
-1.302778 4.984661 -3.712789 17 25 10
-10.713735 12.532355 5.889386 219 207 193
-4.011775 3.496608 -5.357055 105 113 100
-0.277360 2.121763 -1.165437 180 184 187
-2.368129 5.564155 -3.600376 46 59 36
-11.093080 6.397826 -3.319288 254 250 234
0.025209 1.368792 -0.518662 113 103 67
-1.394115 4.877383 -3.805918 134 166 125
-65.650558 -22.982731 -26.148422 208 206 126
-4.851836 5.448821 -3.628359 189 190 172
-2.248620 2.393505 -6.551699 99 109 82
-0.662077 2.269390 -1.031936 13 12 17
0.310277 1.434982 -0.445627 147 139 126
-1.390882 4.909836 -3.784064 39 60 31
-0.997185 4.769030 -4.187307 126 123 118
-75.359093 -13.132893 -14.181771 194 221 105
-0.653182 2.279870 -1.016346 137 114 86
0.230415 1.212444 -1.441587 184 154 123
-10.215584 6.729498 -2.936960 168 162 145
0.170589 1.292653 -0.498548 173 171 148
-0.445636 2.096461 -1.011085 190 178 153
0.580365 2.518525 -0.872970 115 116 121
0.102516 3.096177 -0.401767 109 113 119
0.334178 1.304275 -0.379201 99 91 76
-1.857359 5.689221 -3.322060 36 42 30
11.476802 -7.830652 -16.330578 190 201 185
-38.182178 -28.771009 -29.983641 119 128 65
-0.326277 1.892581 -0.637507 123 98 58
-0.753226 2.335747 -0.856147 169 142 120
-4.216020 2.751433 -6.212469 64 65 60
-1.606214 6.158679 -2.675163 33 39 29
16.505066 -5.517966 -14.097363 183 192 176
-2.001199 6.537964 -2.880564 29 22 14
0.343047 1.776497 -0.287042 134 99 68
3.343761 3.418164 -3.532379 96 99 108
-0.482957 1.894841 -0.586428 208 185 152
-0.496551 1.946489 -0.524106 0 0 0
-1.931545 6.389210 -2.133851 175 168 142
13.383627 -14.168915 -22.343262 99 125 77
-12.400992 7.190403 -2.243585 196 190 176
0.047994 1.463297 -0.627461 184 170 136
-2.080439 5.118242 -3.902253 115 130 97
-39.677773 -33.247383 -28.544031 186 217 123
0.492187 1.243283 -2.127092 118 127 136
2.260385 5.055343 -2.032001 15 20 24
-1.496398 4.988126 -3.789709 28 46 14
-38.689438 -43.699863 -32.454975 111 127 64
-3.580791 5.580598 -3.470265 92 96 81
-0.148826 1.827275 -1.512882 41 46 51
-37.266582 -26.416851 -30.291876 246 218 180
-4.458665 3.092843 -5.918221 70 82 57
-11.406933 10.328778 0.857846 255 241 213
-0.056752 1.169551 -0.374996 184 172 149
0.561864 2.875881 -0.550268 128 128 140
-1.043768 3.186920 -0.216102 141 151 160
-4.570661 5.563792 -3.421888 188 196 175
-60.839497 -11.175247 -16.291567 210 223 126
-2.915555 6.210390 -2.902053 113 112 107
0.245479 1.064960 -0.453362 189 193 180
-2.935207 5.934887 -1.037129 163 177 190
-40.351135 -29.704521 -29.699373 202 197 131
2.056067 2.919627 -4.006433 98 102 113
-13.804492 10.709710 3.988093 103 94 85
-4.701546 6.058344 -0.866742 0 0 0
-37.864223 -29.537857 -29.178213 145 163 87
-5.912756 3.467108 -6.028637 117 120 103
-9.238940 16.800131 10.169712 165 157 138
-4.170351 6.059995 -0.846201 156 168 182
-14.979115 -43.417809 -46.802284 247 225 178
-12.531703 16.044846 9.615645 171 160 140
0.179413 1.241153 -2.131643 117 129 143
-26.212343 -43.586887 -40.408325 93 81 67
0.051740 1.431140 -1.943121 54 57 66
-14.302373 9.085394 -0.439477 250 241 219
1.973752 9.917027 3.004043 134 140 143
-29.668907 -35.386326 -34.890083 254 231 174
-0.280036 2.165647 -0.063177 161 130 99
-2.382050 4.123044 -4.822618 0 0 0
-3.043201 5.869984 -3.198461 112 117 98
-27.479662 -40.106300 -34.921314 46 67 16
2.095730 2.386075 -4.561844 87 66 45
-3.676318 4.598761 -4.314378 180 194 169
-5.261686 4.139715 -4.787622 105 130 90
-32.114532 -44.121777 -32.156250 243 206 160
-3.286035 4.818793 -3.955022 0 0 0
-2.977855 5.163970 -3.855862 204 208 186
-1.335186 4.289274 -4.766294 109 129 90
21.745211 -4.760795 -13.725148 205 213 202
-3.933043 4.802677 -4.105960 177 184 168
-4.171345 5.298260 -3.510298 0 0 0
-4.149938 5.562889 -3.505379 71 78 60
56.531147 10.325901 9.563750 116 127 133
-0.143111 1.408959 -1.959915 70 78 92
-2.349050 5.027277 -4.058569 229 235 221
-1.895230 2.359959 -6.899812 65 78 59
-5.596866 4.926164 -4.003317 87 91 74
-34.058372 0.466647 -8.851294 0 0 0
-8.046802 4.741364 -4.461815 179 193 179
-3.808053 5.951225 -3.228633 220 205 174
-8.483619 5.519282 -3.841990 113 127 141
-1.130614 2.751067 -0.719047 85 91 95
-8.604008 3.767954 -5.818331 242 225 155
-5.469015 5.288932 -2.791646 138 150 164
21.224979 -5.842615 -14.658843 199 205 195
0.063289 1.454466 -1.922091 0 0 0
-0.739073 4.584833 -4.216469 39 36 29
0.170197 1.418003 -1.355368 212 188 152
0.447801 1.223338 -2.136729 150 154 155
-9.004031 3.719874 -5.927413 230 230 148
-32.526291 -23.314785 -29.787361 185 179 165
-3.281378 3.112814 -6.054760 111 112 104
-11.416903 10.307145 1.092219 0 0 0
-3.455642 5.570293 -3.475974 125 133 116
-56.836296 -13.338639 -16.961863 29 37 22
-2.557688 2.191753 -6.916726 59 70 42
-10.957054 9.620499 0.718908 239 209 171
0.846996 11.113892 4.063778 70 77 85
-11.578897 10.264838 1.004984 255 223 178
-34.006882 -26.798452 -31.271080 255 245 213
-12.228270 10.001548 0.960568 223 185 142
-1.598168 4.918749 -3.948489 120 151 102
-28.327868 -37.531826 -34.620693 90 87 45
1.437390 0.854005 -2.533676 183 189 212
0.495643 1.629547 -1.192451 123 93 63
-13.234749 10.797856 4.138059 124 116 103
-1.777167 5.257698 -3.669900 26 40 21
0.253650 1.832854 -0.233173 0 0 0
0.607241 1.101065 -2.268587 121 128 138
0.473814 1.277069 -2.132896 85 89 99
-3.112633 6.328160 -2.807371 110 114 99
0.197244 1.563120 -0.657958 153 135 97
0.427405 1.650551 -1.163994 161 135 105
0.840318 1.387497 -1.872522 66 69 77
-2.567358 5.464783 -3.637135 181 189 169
-82.783783 -43.827778 -22.159979 0 0 0
-4.558724 5.242533 -3.668419 177 182 162
-3.732100 7.479800 0.849487 0 0 0
-1.860490 3.705413 -5.269050 90 90 80
0.783814 10.134906 3.096952 71 75 86
0.034386 1.089126 -2.311329 122 136 151
-18.130785 -52.960220 -34.545635 181 195 158
-2.415409 3.295126 -5.652392 185 191 179
0.231242 1.470354 -0.585432 186 180 158
5.101158 4.459435 -2.661490 68 67 72
-2.176440 3.433298 -5.528775 177 181 165
0.202127 1.447274 -0.578989 118 111 92
-3.081852 5.683552 -3.359741 70 76 64
-4.766142 5.051148 -3.957989 113 129 100
0.708839 1.307318 -2.066463 73 73 81
-35.136066 -30.898165 -31.072367 236 216 166
-1.288173 4.769248 -4.072259 33 51 29
10.317689 -10.167440 -18.696653 105 119 90
-5.092018 3.817384 -5.300632 151 152 136
-2.610554 4.067184 -4.914814 155 163 142
-15.247849 9.077414 -0.028015 170 183 114
-35.594021 -35.831493 -32.100365 118 137 42
-10.078464 7.185937 -2.293892 178 171 161
-22.790258 11.143913 5.736193 212 216 210
-4.158649 6.102882 -2.945548 48 48 40
-14.604723 -58.610218 -37.056595 0 0 0
-3.257430 3.669991 -5.266575 182 186 171
-3.431654 4.029910 -4.996063 174 181 165
-0.540506 1.935283 -0.626685 174 152 128
-4.325032 5.700253 -3.345157 84 87 70
-4.227923 5.152894 -1.781490 153 161 179
-0.409513 2.037603 -0.947117 198 184 155
-9.871692 6.907226 -2.891252 242 239 222
-10.304492 7.492144 -2.223503 182 176 162
-19.182602 6.903090 -1.722379 162 151 135
0.255995 1.039977 -0.128321 210 196 171
-19.765186 7.839580 1.077728 101 93 69
-1.403216 3.539404 -5.461442 125 119 123
-51.174957 -22.769907 -9.247185 59 86 21
-2.420868 3.472188 -5.341426 86 90 70
-3.073604 4.245834 -4.748344 0 0 0
-14.221351 2.666393 -7.223335 0 0 0
-5.376327 3.508891 -5.474618 106 114 91
-18.382215 -53.352600 -34.227146 176 190 129
-4.668671 4.930619 -4.966963 172 186 163
-14.958591 9.327434 -0.128059 157 129 92
-6.953482 4.898234 -4.383305 74 65 50
0.039763 1.397570 -1.369686 155 127 97
-2.736633 4.707072 -4.330591 113 116 99
-10.328300 7.620445 -2.059528 255 253 235
-23.332237 7.406323 0.929134 126 118 99
0.031215 2.079190 -0.132809 196 170 134
1.883058 2.542987 -4.315495 192 179 160
-3.588788 4.735940 -4.251150 192 201 184
0.623496 1.932960 -1.034130 142 108 71
0.260476 1.441017 -0.075177 149 119 83
-3.152023 2.742095 -6.134504 85 115 77
3.634055 9.611481 2.350103 0 0 0
0.229179 2.246872 -0.569059 164 132 94
3.399192 2.095134 -3.807869 88 87 85
-3.146130 3.482481 -5.410841 89 91 77
-2.103513 3.957574 -4.961342 170 178 165
0.212234 1.028909 -2.360484 149 161 175
-13.194069 -46.798248 -45.509121 195 222 93
0.264211 1.219209 0.007968 200 178 150
-3.334354 3.657279 -5.238038 102 104 83
-3.143862 5.731501 -3.367998 194 203 179
0.854144 1.245406 -2.120385 123 132 147
-14.807633 10.773999 4.127822 22 19 16
-11.730672 9.416574 0.836472 142 109 72
0.076347 1.083393 -2.314102 80 85 86
0.000540 2.725124 -0.599706 136 115 86
-4.932234 3.031486 -6.244858 155 167 145
-1.002267 -0.927569 -9.399515 185 195 170
-3.367947 5.387759 -3.630386 193 206 186
0.794506 1.302491 -2.118610 136 142 158
-3.894747 3.786112 -5.120621 148 157 138
-5.085905 3.612038 -5.436047 107 115 94
-1.116650 5.055551 -3.974893 21 17 17
0.099309 2.313928 -0.302256 194 176 140
0.990302 1.323224 -2.033931 148 159 179
-3.854079 4.159030 -4.869373 158 166 151
0.621652 1.752096 -0.815728 159 133 98
0.258770 1.041871 -0.083807 211 195 162
-5.476510 3.586325 -5.375803 119 124 102
-10.296405 11.512908 3.683922 61 57 54
-0.016065 1.695357 -1.524194 135 130 122
-1.868555 5.845660 -3.130799 47 64 32
12.131140 -8.357981 -16.995596 132 154 112
-6.104585 3.965447 -5.284140 160 172 148
7.090643 7.889455 0.726577 14 13 18
-4.796973 4.262633 -4.733715 133 149 123
-6.558226 4.391088 -4.872809 113 115 101
-4.709856 5.301331 -3.744858 121 134 104
-2.805441 5.786907 -3.218358 0 0 0
-0.513019 1.934572 -0.530926 133 96 69
-4.146333 3.058295 -5.920892 156 163 155
0.058589 1.433038 -1.291112 200 171 141
0.191998 24.459213 22.080452 31 50 67
-9.749576 6.703157 -3.030430 240 234 222
-2.751987 11.614113 5.122744 199 190 173
-10.078189 7.166712 -2.507732 178 172 160
-10.220618 8.239432 -1.345056 200 192 173
3.856543 11.364595 3.929026 0 0 0
-5.914188 4.045613 -5.118256 174 186 152
-15.589917 -50.182362 -42.625237 74 81 58
-0.068479 2.071039 -0.080193 183 157 122
-0.078345 1.996618 -0.057440 182 146 110
-6.544149 5.110679 -4.002764 88 90 77
-10.769703 8.383953 -1.069714 212 229 149
-11.232827 8.785530 -0.766209 104 113 103
-4.509762 14.239324 7.343498 198 185 170
-1.535042 3.557358 -5.476774 88 88 76
-10.671533 12.691225 5.758860 58 53 49
-0.155271 1.531923 -0.342805 0 0 0
-3.437177 5.987056 -3.083265 82 81 51
-54.511288 -16.974157 -12.790654 212 232 163
-2.420240 -0.194407 -9.153967 239 226 194
-1.980125 3.395930 -5.571646 166 169 158
-1.645207 5.523720 -3.415488 11 15 10
-64.285187 -25.366903 -23.853853 97 103 81
-4.164419 2.848239 -5.990969 186 191 169
0.442398 1.737097 -1.641818 114 114 126
0.358103 1.173596 0.015340 171 142 108
-7.740576 4.992988 -4.028597 171 185 172
-1.752269 3.514826 -5.462749 102 104 91
-1.963937 3.402583 -5.519089 98 107 90
-0.103865 1.152300 -2.251817 111 123 137
-62.651733 -26.635136 -19.105139 29 32 21
-3.335950 3.400417 -5.486335 167 170 159
-5.267889 3.584139 -5.475472 107 123 94
-3.254200 4.361392 -4.617052 174 187 170
-5.579830 3.716303 -5.292889 140 145 120
-1.445358 5.781507 -3.089989 55 60 50
-52.333786 -22.122866 -28.267176 200 228 129
-0.982622 3.656086 0.156374 101 110 127
-4.403050 5.916547 -3.238605 56 59 52
0.813837 1.639433 -1.729069 170 177 185
-2.005669 6.275911 -2.511944 0 0 0
-7.188840 5.164735 -4.123121 72 69 57
-0.253090 1.663844 -0.358467 138 112 77
-0.521538 1.934952 -0.539641 154 112 65
-39.921673 -47.916164 -30.915266 229 218 183
-2.864379 0.574227 -8.302573 229 229 167
-4.555854 5.967707 -3.711811 195 205 183
-7.301353 5.196784 -3.982513 145 145 135
-6.310668 5.201232 -3.549713 135 146 150
-8.987574 6.657161 -2.642852 136 154 168
-0.858262 3.873030 0.494036 143 147 158
-1.965585 4.687980 -4.446830 75 72 67
0.185606 1.359762 -0.527918 166 169 158
-9.661564 7.925704 -1.361550 216 208 195
0.056282 0.947815 -0.376271 0 0 0
-11.154776 8.749726 -0.654072 213 224 146
-11.098127 8.703165 -0.500629 233 244 164
4.703803 6.121155 -0.790117 0 0 0
74.718735 15.211122 28.138142 112 102 101
-7.754922 2.818917 -6.611445 253 250 193
-4.014446 5.982695 -3.230202 215 220 198
-1.995423 1.755193 -7.676566 180 220 186
-11.926562 9.484307 -0.213637 255 253 234
-3.691067 6.318801 -2.762804 41 50 33
-3.430765 3.290334 -5.591538 85 88 79
-3.957537 3.256922 -5.644428 188 196 181
-3.198849 3.900972 -4.996238 170 182 160
-22.872065 -0.744894 -11.569825 231 219 177
-5.434123 4.494907 -4.539418 179 182 160
-4.097435 3.634454 -5.364161 159 168 149
-4.773335 3.436314 -5.642769 75 77 72
-4.774619 3.326974 -5.494765 93 96 87
-2.425870 4.480456 -4.533089 157 163 149
-2.916314 4.650698 -4.777103 0 0 0
4.459934 10.843427 4.040431 110 114 113
-4.871173 3.557640 -5.352267 131 139 128
0.148706 0.975250 -0.330371 193 181 155
-3.721303 4.868251 -4.279685 0 0 0
0.459810 1.256476 -2.155637 76 63 53
-2.431762 4.704052 -4.333703 91 93 80
0.332945 1.252237 -2.103917 116 122 132
-5.394715 3.560556 -5.449593 116 128 104
0.428042 1.481827 -2.163182 0 0 0
-2.641720 5.377061 -3.678609 202 213 197
0.031120 1.328859 -0.020858 158 126 94
0.293106 3.050143 -0.354138 135 142 160
-2.657920 4.652412 -4.361329 85 94 78
-0.702025 2.291505 -1.118393 80 87 103
-3.346187 5.400175 -3.658744 98 104 90
-1.513028 -49.904732 -49.947655 143 135 107
3.187180 2.511476 -4.344372 37 32 28
-4.518380 3.999390 -5.014254 110 119 97
-0.021043 1.488749 -1.520056 158 126 87
-3.544885 5.372192 -3.643225 214 220 206
-0.399364 -62.703243 -47.678894 20 26 14
0.232097 3.046695 -0.395494 101 108 118
-0.224715 1.249628 -2.154010 141 156 175
2.123664 0.524746 -3.064404 16 14 15
-0.884686 3.636309 0.143526 121 132 150
-3.433644 4.443190 -4.575931 73 92 64
-1.313436 3.148872 -0.231543 135 145 157
-8.650620 5.980069 -3.333281 97 110 126
-5.249156 3.804471 -5.163142 187 194 173
-2.195221 5.446638 -3.668904 125 141 115
-18.001617 -48.331963 -39.616863 57 64 39
-3.569575 5.426922 -3.606906 213 224 199
-17.694767 -50.425159 -34.753559 142 134 88
-3.476174 4.522445 -4.437252 137 153 124
-3.571130 5.431557 -3.608324 213 224 199
-0.059597 2.618072 -0.495776 102 78 54
-4.839246 3.908887 -4.918674 162 167 145
-2.595917 5.494035 -3.603487 91 93 77
-17.702806 -40.322033 -44.743168 234 229 172
2.781842 2.421470 -4.428950 191 177 148
-1.077504 2.924017 -0.441401 122 130 141
-4.722723 4.208980 -4.724617 159 170 149
-3.702611 5.508761 -3.512393 210 218 200
-9.124252 -37.511421 -41.727421 184 201 107
-6.279367 4.059550 -5.159042 106 126 89
-5.543672 4.124634 -4.810989 165 178 148
-6.293948 4.117327 -5.109020 128 145 113
0.709363 0.978186 -2.341636 119 126 134
-0.141550 2.120673 -0.071973 188 160 121
2.385343 2.342637 -4.771197 32 21 7
0.114716 1.405621 -1.871976 189 178 150
0.778595 1.191871 -2.156127 148 152 163
0.297284 2.412401 -0.936991 195 199 192
-2.295072 3.751930 -5.188484 68 81 55
-4.394193 4.784525 -4.149349 99 112 88
-5.717778 4.572043 -4.577204 189 196 180
-4.657936 5.840776 -3.212304 58 53 49
-67.300133 -38.355072 -25.337154 87 103 58
-2.649609 -3.815952 -13.374309 95 118 78
-6.911413 7.348812 -0.585847 96 106 118
-4.363196 5.918426 -3.125294 167 179 161
-30.405682 -65.629524 -38.285950 230 211 155
-4.253095 5.312159 -1.968265 0 0 0
-9.595656 7.405949 -2.208632 145 151 156
-4.582807 6.021085 -3.057048 80 78 63
-21.081406 -39.879543 -43.463440 247 230 200
0.180895 2.930245 -0.474797 124 134 153
-11.137963 8.131979 -1.702724 252 240 224
-12.121491 8.542517 -1.220820 157 142 108
-2.552913 6.122154 -3.047267 94 96 75
-66.234039 -39.226097 -24.116348 60 73 47
-10.675721 9.570914 0.271317 191 171 124
-11.460615 10.105869 0.746969 129 94 62
0.763847 1.299920 -2.070728 0 0 0
-2.845779 2.972531 -5.928045 109 111 98
-4.254916 5.506631 -2.306435 70 75 71
-21.882626 -42.541233 -38.698334 253 254 253
-4.839571 5.338888 -2.119526 61 65 68
0.333783 1.038865 -2.390971 137 146 161
-2.015043 3.524051 -5.425581 84 90 78
-2.587599 3.378312 -5.566893 112 115 104
0.172472 0.984118 -0.465062 194 180 151
-3.080670 3.300942 -5.587348 174 176 162
4.850461 5.503338 -1.740958 0 0 0
-2.818058 3.489665 -5.442267 174 178 164
-0.286322 1.881784 -0.732872 183 163 128
-1.931219 3.944694 -5.111523 74 75 66
-0.314472 1.866273 -0.717810 201 181 145
-2.289155 3.796675 -5.174259 111 135 108
-1.988170 4.121005 -4.911604 64 66 55
-3.985587 3.308616 -5.627154 190 192 178
0.753478 1.331101 -2.081344 160 179 194
-3.872267 3.945936 -4.960757 129 142 112
0.639192 0.984578 -2.417448 130 142 157
-3.499773 -51.881702 -41.567158 139 168 74
1.346465 1.725924 -2.056869 0 0 0
-2.898657 4.376611 -4.576436 97 127 89
-4.243820 4.059246 -4.939900 114 125 111
-3.786123 4.329346 -4.492033 117 142 112
-3.559310 4.434580 -4.376616 78 99 64
-4.792393 4.162461 -4.837385 157 170 142
-6.130557 3.812300 -5.296221 104 125 82
-0.120583 1.849188 -0.838419 213 189 143
-7.734429 4.725735 -5.284109 163 156 130
2.361521 7.898468 4.473836 19 19 19
-3.927395 5.232919 -1.725277 155 167 179
-3.940694 3.423575 -5.443049 64 68 56
-4.746143 4.877726 -4.132938 180 190 166
-4.825492 4.802427 -4.105587 167 173 150
0.263906 1.165183 -1.651549 156 162 152
-6.546793 4.364454 -4.672312 171 171 147
-6.153091 4.613591 -4.507479 192 197 178
-11.161986 -52.055180 -46.183094 68 89 48
0.826027 4.688539 -2.396564 44 43 46
0.096722 3.614167 0.184920 0 0 0
3.168036 10.566078 4.450257 241 230 200
-4.912897 5.328324 -3.781716 118 125 108
-3.194248 5.357322 -3.679425 202 207 185
-20.210243 -39.931427 -44.663158 221 213 158
-6.423864 4.870230 -4.329506 198 203 181
-3.882226 5.773830 -3.284978 72 84 66
-6.649836 4.980882 -4.306824 128 127 109
-1.773145 5.234177 -3.586915 145 150 126
-17.694767 -50.425159 -34.753559 142 134 88
-7.396188 4.908211 -4.483356 73 75 64
-5.424164 5.317033 -3.703272 146 151 135
-10.850449 -50.818550 -41.170246 214 225 152
0.599984 0.398739 -2.968284 111 123 137
-7.106904 5.115260 -4.179847 128 127 117
-7.384507 5.052869 -4.266370 78 82 67
-7.290950 5.080540 -4.190813 187 181 166
-6.878616 5.325057 -4.028879 68 68 58
-6.659539 5.256866 -3.890386 110 108 96
-7.506273 5.051033 -4.041800 62 59 47
-7.636268 5.059876 -4.073721 140 142 121
-0.129456 2.007614 -0.041575 178 155 121
0.752712 1.302981 -2.059255 55 66 75
0.256427 1.839083 -0.226827 162 133 99
-3.340867 2.551556 -6.352905 205 211 197
-6.606731 4.460336 -4.800653 117 119 105
-9.023694 6.596332 -2.882112 146 162 177
-4.443341 5.694170 -3.350043 175 179 158
-80.186943 -46.342094 -21.156929 38 49 32
-4.677888 1.662382 -7.265172 128 138 75
-3.289492 5.729516 -3.313988 101 104 89
-7.238689 4.735666 -4.674649 187 189 175
-4.714611 5.433550 -3.687029 118 126 103
-3.306412 5.712677 -3.346858 173 179 151
0.024566 2.835765 -0.568380 114 115 121
-4.281449 0.847746 -8.529117 238 224 190
-6.195247 4.966987 -4.207952 179 189 164
-10.895640 7.774230 -1.932613 182 175 147
-11.923949 3.950723 -6.681058 205 193 155
-11.031667 7.889698 -1.938450 182 175 147
-11.025021 8.184006 -1.605129 252 243 226
-10.959515 8.162776 -1.397403 129 138 124
-6.410754 7.554819 0.683320 146 158 171
-2.756545 4.831271 -4.239887 78 87 68
-0.299801 1.783006 -0.597227 172 140 89
-0.412107 2.166684 -1.106877 24 24 26
-4.538867 -0.034266 -8.590151 211 226 134
-40.269253 -48.225559 -29.629456 175 197 115
-0.393825 1.778593 -0.509438 180 143 91
0.027990 0.872718 -0.244590 0 0 0
-7.694868 2.078454 -7.413979 133 141 76
0.322074 0.981474 -0.164424 217 214 197
-2.558831 4.955380 -4.243870 0 0 0
-3.623839 2.728320 -6.260649 178 181 171
-3.066740 4.818358 -4.031945 182 186 169
-4.211412 5.628474 -3.477205 197 200 180
6.131815 8.136948 1.839502 62 65 67
-5.040157 4.460239 -4.548297 138 157 126
0.085999 1.468343 -1.196740 204 171 137
4.523693 3.138169 -3.827546 113 102 88
0.323164 1.393124 -0.111166 150 132 110
-0.057990 1.655979 -1.767867 88 98 108
-5.230124 4.498275 -4.501744 146 148 134
-4.445792 5.281631 -2.542932 0 0 0
-10.864079 8.786392 -0.682889 177 181 91
-4.436609 5.620436 -1.378913 148 158 173
-0.045600 1.204151 -0.347110 176 149 107
-15.228765 -43.016777 -46.393402 244 222 185
-9.123145 4.082437 -5.822980 232 226 171
-36.365246 -9.385378 -18.673958 224 226 147
-4.245688 9.555577 2.761118 145 153 164
-2.245591 5.029865 -3.989209 122 124 113
-3.314252 5.237302 -4.098556 0 0 0
-4.187264 5.009886 -4.031955 211 218 200
-3.029346 5.074342 -3.961875 99 101 81
-3.355051 5.054909 -3.893646 0 0 0
-3.716613 5.084403 -3.921068 141 156 127
0.674042 2.074903 -1.293451 23 19 16
-0.105569 1.685058 -1.703246 44 49 55
4.675352 3.191003 -3.697600 0 0 0
0.590421 1.765774 -1.323433 163 130 98
-3.798875 5.352861 -3.741703 138 143 119
-4.727702 5.640253 -3.692012 163 163 142
-4.178113 5.614247 -3.532314 120 122 98
-4.482238 5.758965 -3.484305 180 188 173
0.037793 1.436557 -1.248180 220 197 161
-4.420697 6.020932 -3.073538 105 107 94
0.939384 2.112386 -1.251810 0 0 0
-4.018107 6.169010 -2.921904 0 0 0
-0.404072 2.231135 -0.105684 150 123 96
-17.419861 -0.836604 -10.729108 114 127 39
-4.544336 6.139779 -3.050581 0 0 0
3.431869 5.383004 -1.368235 0 0 0
0.362562 1.086554 -0.106905 131 119 103
0.313772 1.154853 -0.066764 173 167 145
3.852559 8.473269 1.819582 96 99 104
0.027833 0.800079 -0.134041 0 0 0
-0.114092 1.705599 -1.687992 43 47 56
0.679134 1.888943 -1.379780 137 128 108
-2.165776 5.717811 -3.370695 77 91 71
-4.578797 5.827220 -3.253076 87 89 76
-4.398811 5.139312 -3.885200 70 72 58
-2.469098 5.241306 -3.811674 78 83 60
0.596483 2.029299 -1.160852 19 17 20
-13.609486 -62.089512 -42.515453 72 71 41
0.185210 3.487663 0.073095 139 141 153
0.242736 1.059373 -0.354965 180 170 159
-0.306054 1.856441 -0.087508 207 167 135
0.358870 1.038878 -0.187675 222 219 201
0.023779 1.014131 -0.182782 209 181 151
-16.072088 -0.800571 -11.476036 122 134 47
-4.055720 5.127520 -3.860373 180 190 165
-0.169110 1.721508 -1.668084 48 57 62
-0.233749 1.927336 -0.791821 187 154 111
-16.777695 -1.518888 -11.673449 232 251 144
-21.560936 -55.666077 -35.103794 184 192 106
0.040467 1.485876 -0.617354 219 213 199
0.042776 0.995968 -0.142720 225 209 175
0.058902 0.776093 -2.622487 0 0 0
5.817640 5.793753 -1.011615 80 87 93
-1.109261 -67.890640 -47.755325 18 26 15
8.008838 6.903763 0.079891 180 178 166
7.047370 9.092417 2.251805 137 145 148
6.123940 7.772143 5.089618 178 181 174
0.675063 0.775203 -2.609953 149 163 174
8.662704 11.563843 5.070247 251 238 217
-0.226434 3.657192 0.205574 111 117 131
12.356785 -58.580605 -49.923916 182 205 128
1.527965 4.684663 -2.453243 126 129 139
0.319305 5.459229 -1.804110 94 94 96
-0.417621 1.873788 -0.635201 203 183 150
1.571110 0.718305 -2.637290 0 0 0
0.520274 1.135988 -2.207847 136 151 164
1.665956 0.799428 -2.560499 173 185 199
-0.751588 3.667274 0.244242 0 0 0
1.171958 1.516017 -1.867895 209 214 220
-3.174869 5.736457 -1.155473 111 117 114
-1.066233 3.454514 -1.675608 99 103 102
-17.079973 -56.577019 -34.783718 207 202 118
8.802746 6.320055 -0.601597 0 0 0
-1.351852 4.464017 0.997683 116 126 135
7.364350 7.103165 2.931216 51 51 49
-2.725012 6.357011 -0.559127 165 173 186
-1.411277 5.891777 -3.006434 21 24 21
-0.673101 3.194189 -0.232349 82 90 101
0.173722 3.547122 0.119535 88 86 98
-2.323912 6.443856 -2.025902 44 46 41
0.187169 0.983486 -0.246660 138 122 89
-1.822512 6.299100 -2.589647 89 78 60
0.616219 2.300154 -1.095353 104 104 109
-0.229086 1.879073 -0.722814 145 118 82
-0.038886 2.500038 -0.259941 159 123 87
-2.185392 6.128226 -2.899862 13 15 17
-2.306177 5.814537 -1.124963 83 89 95
-5.266298 2.648662 -6.607228 200 211 195
-2.252316 5.830573 -1.100377 109 121 133
-1.840666 6.507701 -2.170511 78 79 71
1.036101 1.855926 -1.522607 131 138 148
0.593985 0.941790 -2.414427 127 139 154
-0.118684 1.953301 -1.193170 16 19 24
-12.702943 -55.014610 -39.066162 201 209 141
0.582042 1.886547 -0.991606 165 130 88
-0.145233 2.053337 -0.920582 57 55 58
-0.115279 1.764364 -1.355270 206 175 133
-11.159483 0.099311 -9.661461 151 141 63
-4.822174 6.068885 -3.130733 0 0 0
6.432833 4.214283 -3.032255 221 214 198
5.865448 8.717274 1.558372 229 217 195
6.501109 8.670591 2.013654 124 127 122
1.724756 20.691881 13.574757 112 116 115
-1.548956 5.908732 -2.886429 122 117 97
-1.577092 12.420305 5.130941 0 0 0
-5.097886 5.817270 -2.935451 91 96 89
-6.434300 -51.070358 -51.232384 245 254 253
-2.498770 5.474188 -3.623407 197 203 189
-0.197882 1.611374 -0.524028 221 190 135
1.657598 10.016602 3.368392 94 99 105
7.334163 7.526232 2.692314 233 221 196
-2.280194 6.378647 -2.741502 41 43 32
-2.526235 5.924077 -1.546027 0 0 0
0.585848 1.175254 -2.184108 137 151 164
0.083161 1.207961 -1.648157 219 230 226
-5.617487 3.382160 -5.578759 109 119 94
-22.398100 -42.044067 -37.340084 77 65 53
-3.668610 5.530098 -3.495032 216 219 200
0.179453 1.178055 -1.680925 221 219 198
-1.676360 4.335598 -0.317624 81 83 82
5.764361 4.846249 -2.532393 118 128 137
4.896099 5.674284 -1.002727 87 96 101
-0.164554 1.554686 -0.521807 177 135 87
0.331487 3.014251 -0.930271 105 111 127
-0.067131 3.578780 0.148730 87 91 102
-0.568265 1.991105 -0.324703 227 196 141
-71.950859 -14.689394 -18.063288 56 70 41
-2.810173 5.724523 -3.366941 143 151 128
7.075738 6.324440 -0.723155 153 145 136
-2.968320 5.733594 -3.377529 194 202 182
58.458832 -14.958838 4.196691 119 119 112
-3.535080 1.806724 -7.089673 137 126 94
6.879790 7.212738 4.168717 253 255 254
-12.037510 5.356836 -4.736386 243 235 217
-3.279128 6.262357 -2.766754 100 102 89
-0.074823 1.484317 -1.274057 208 184 140
1.968195 2.590195 -4.311339 0 0 0
-41.426514 -27.538628 -29.541513 180 190 101
-3.530356 6.227818 -2.848157 62 67 60
-3.226758 5.926059 -1.964596 0 0 0
-3.300250 4.776217 -4.269319 167 172 150
-30.044127 0.904027 -8.661616 240 233 215
-3.244484 6.407422 -2.639466 98 100 95
-0.086100 1.181888 -2.267662 125 138 155
-2.541320 5.959470 -1.621873 0 0 0
0.220857 1.242700 -2.132274 139 153 164
-8.987888 5.347458 -4.378416 89 107 121
-0.008542 1.506278 -1.877336 85 91 103
-0.335797 1.688483 -1.691430 115 128 143
10.636292 14.510761 6.667766 0 0 0
-2.524549 8.116384 0.559235 0 0 0
-50.696087 -25.223797 -29.045963 191 229 128
-5.439014 0.237780 -8.797844 221 236 154
-9.196459 -5.024516 -14.611256 91 105 76
0.027162 1.429483 -1.273039 0 0 0
-1.917336 5.010352 -0.074291 99 98 94
-18.475994 -7.996294 -17.315935 215 225 135
-35.723347 -6.353356 -15.713423 189 179 133
-2.651352 7.621125 0.640001 162 174 190
-2.908305 7.916267 0.903910 163 175 189
-34.520710 -7.888591 -17.343576 209 225 137
-0.646941 2.202266 -0.663353 211 177 113
6.314742 5.300184 -2.051046 86 98 96
-36.207294 -10.940982 -19.952885 225 242 146
-1.223635 4.368463 0.993735 118 125 133
1.202757 -46.713177 -51.637455 133 137 88
-6.976002 1.566278 -7.334569 229 230 153
-0.472288 1.894518 -0.180814 0 0 0
1.796728 2.654546 -4.332828 88 80 80
4.287143 -41.174492 -42.006176 171 151 127
-0.063394 2.888633 -0.509423 75 77 89
5.744787 6.985147 0.806204 229 219 209
0.400019 1.442240 -1.867746 122 129 139
-1.129311 2.738685 -0.754744 47 47 57
-2.848000 1.184289 -7.394717 229 229 170
-1.935440 4.867266 -0.027735 0 0 0
5.511413 5.661980 -1.405355 102 113 119
5.130366 12.155892 5.133326 212 190 166
-0.343567 1.350110 -2.157136 88 92 85
0.653001 2.161635 -1.191222 125 123 128
-0.370676 1.433479 -2.104113 101 102 97
-4.821124 -1.229259 -10.359727 84 104 63
-1.730538 6.227306 -2.219842 92 97 93
-2.459363 5.644179 -1.324849 59 67 60
-3.743572 2.252712 -6.792250 136 124 104
-3.645243 5.027010 -3.982326 212 221 200
-2.587833 6.082182 -0.884121 169 179 191
-0.546814 3.202016 -0.244879 117 126 143
1.063211 1.429757 -1.910831 93 100 108
8.216987 7.430703 0.052429 126 128 123
-0.051914 1.138734 -0.321550 216 195 152
1.044375 9.360560 2.594737 92 99 105
-6.825912 -56.439194 -44.003059 68 80 52
-1.391737 5.757089 -3.402291 168 184 173
3.480521 0.937006 -2.641212 11 11 11
-1.116835 3.190715 -1.392545 119 118 112
-1.562048 5.793807 -3.256616 37 38 32
6.856241 -7.464023 -16.673304 217 224 183
-2.160225 5.973722 -2.963958 124 144 102
-2.303021 6.244105 -2.884022 54 54 48
4.049808 3.015102 -4.006559 0 0 0
-2.586062 6.347250 -2.748176 47 53 43
4.766045 -10.332502 -18.954651 204 203 159
-2.859146 6.493285 -2.492275 41 43 32
-2.655474 -14.171343 -22.884541 118 137 92
-1.887048 6.130285 -2.819466 21 20 15
-12.130924 -16.047079 -25.764679 208 228 219
-1.747348 6.141419 -2.849195 15 16 18
-2.670362 6.513672 -2.429007 37 39 28
-1.591361 5.950528 -2.782793 0 0 0
-12.736776 -18.986897 -27.503948 167 192 135
-1.993944 6.383165 -2.430522 93 95 90
-10.070437 -38.496769 -43.731380 174 191 87
-1.101531 2.753658 -0.645368 95 103 115
-1.666319 6.142359 -2.323316 105 111 107
-5.019785 4.875802 -4.468607 200 204 189
-1.696800 6.249561 -2.321021 63 67 70
-0.096453 3.557974 0.104448 82 86 97
-1.912354 6.588214 -1.991709 20 22 19
-1.927086 6.149174 -1.589486 47 50 39
-0.463977 3.226958 -0.220539 139 145 160
-0.139640 3.182623 -0.232723 143 150 160
-2.194890 5.836198 -1.371060 59 59 49
-0.111335 3.051982 -0.364819 142 146 157
-1.897089 6.052611 -1.430952 45 46 36
0.019620 3.018592 -0.384590 92 95 102
0.040118 1.466689 -1.907003 73 82 93
0.019620 3.018592 -0.384590 92 95 102
-7.847126 -45.277451 -44.242432 152 181 91
-5.222908 9.987174 3.093703 150 157 171
-2.213560 5.797693 -1.129023 139 149 161
2.089329 2.763113 -4.217819 71 74 79
-2.364779 4.811916 -4.266575 190 199 186
-2.764816 6.393854 -0.676952 174 186 198
0.431035 1.971388 -0.968005 182 144 105
-1.965228 5.878274 -0.939339 22 23 25
0.185325 2.041058 -0.298535 211 169 127
-1.965228 5.878274 -0.939339 22 23 25
-2.291019 6.114635 -0.774910 160 170 182
-2.494706 6.392699 -0.560813 112 121 130
-1.896297 6.298134 -2.352299 146 132 100
-2.164732 6.400616 -0.602427 174 181 197
2.760906 -7.509484 -15.761475 172 201 140
-2.442433 6.489915 -0.478830 168 178 188
-2.716474 6.515659 -0.363442 127 134 144
-0.184644 2.680486 -0.394216 128 95 64
-0.342430 2.138026 -1.244729 79 88 97
12.087754 -9.919397 -18.808178 68 74 64
-2.538387 5.585578 -1.325451 0 0 0
-2.723777 6.456361 -0.354968 154 163 170
-0.083544 1.994152 -0.061913 180 144 110
0.345321 1.091111 -0.180749 131 113 89
-0.206315 2.084101 -1.236798 14 17 21
-0.294631 2.102187 -1.193546 212 213 192
6.243003 -10.696823 -19.328085 71 94 49
-1.259380 4.871689 -4.078636 103 127 88
-0.236907 1.868295 -0.679177 141 113 70
-3.185684 6.768385 -0.127274 166 174 185
0.183911 1.648136 -0.126606 215 181 145
-8.491933 1.468743 -8.142696 226 210 143
6.200517 6.107481 -0.961730 123 134 139
0.912486 4.544809 -2.577552 116 119 128
-5.027763 6.697058 -0.145583 143 153 163
51.476292 -47.136044 -46.847748 90 112 76
-7.268489 2.965931 -6.252836 219 220 142
-0.567144 1.992702 -0.323600 227 196 141
-0.318065 1.695637 -0.352742 181 147 109
-5.270915 -7.026506 -15.592432 180 203 132
0.037519 1.415954 -1.515176 216 196 161
-0.117879 1.473609 -0.411375 203 172 118
-4.991294 3.943589 -5.337714 199 217 194
-0.031001 1.096608 -0.125815 217 214 183
3.426565 0.907225 -2.506690 0 0 0
-3.935742 2.756064 -6.286834 177 182 176
0.251372 1.043051 -0.096286 227 205 176
4.245807 12.046914 5.362291 211 193 169
-4.017120 9.419088 2.415070 58 65 72
3.038220 2.958331 -4.041362 0 0 0
-1.823437 5.230910 -3.688986 82 99 62
0.521130 16.274466 9.527057 125 130 134
-9.506408 -13.151753 -22.507475 149 174 132
-1.436998 5.863154 -3.265687 42 50 36
5.068766 3.322299 -3.979976 49 49 49
9.781688 -18.032417 -27.468573 0 0 0
-2.813325 5.653350 -3.391675 201 209 186
0.307545 -54.158451 -52.334839 253 228 193
0.901544 2.121385 -1.260955 101 104 113
4.345755 10.605090 3.992218 95 99 97
5.185883 9.203289 3.423815 208 203 191
-2.906897 1.627899 -6.990057 238 224 187
0.529093 0.434836 -2.979488 164 181 193
4.362469 4.059365 -3.084092 0 0 0
0.324604 1.421080 -0.150091 125 95 59
-4.197565 6.022508 -3.035904 88 88 79
0.529093 0.434836 -2.979488 164 181 193
-4.848356 1.992846 -7.161689 215 201 164
4.186933 6.022365 -1.135219 187 196 201
-1.769012 -3.415007 -11.718253 111 128 86
6.635640 6.680295 -0.426812 136 136 131
-1.306456 5.609708 -3.370732 13 14 9
6.082791 5.646992 -1.033896 90 93 86
-2.045959 5.934710 -0.816850 155 162 170
-0.117138 1.550412 -1.329891 215 187 147
-0.211814 3.148542 -0.272475 155 159 171
-1.823941 6.001225 -3.104324 0 0 0
-1.349927 5.595813 -3.348634 117 124 115
-0.538129 -3.574497 -11.678431 207 225 177
-2.115814 6.317501 -2.427117 196 205 188
11.826605 -5.042734 -14.139751 98 106 91
-1.217051 3.555593 -1.202418 123 120 112
-0.658886 2.238761 -0.632814 227 195 134
-3.156018 -55.016140 -51.482964 95 89 40
-6.231505 3.856872 -5.308514 64 84 55
-1.680019 6.070274 -2.215555 61 66 62
74.188591 -8.663601 5.979277 214 180 73
-0.317149 3.398676 0.075308 142 145 154
0.360047 1.116705 -2.287664 155 168 179
-2.712663 -2.109086 -10.249147 133 152 107
0.010227 1.332399 -2.003887 116 134 146
-0.098583 1.667632 -1.718246 86 95 104
-4.922248 -4.622948 -13.251464 105 137 55
58.852642 1.936712 15.532356 0 0 0
0.012966 1.539402 -1.746702 208 187 145
0.206645 1.501845 -0.082052 131 87 46
0.057206 1.950113 -1.040542 208 189 156
-0.441821 1.877948 -0.621884 226 208 169
0.006921 1.818859 -0.871378 201 168 125
39.849216 1.208224 0.440734 96 110 113
-2.893771 6.234201 -0.648106 137 145 156
-4.687531 4.815406 -4.140486 174 179 153
5.159686 3.859325 -3.070502 238 233 214
0.444039 1.480498 -0.856697 164 129 82
6.463032 -9.381508 -17.936771 73 102 44
42.243820 4.224431 2.745276 133 149 148
-3.222390 6.251571 -0.644147 135 146 152
-4.970488 3.112163 -5.836562 120 127 106
0.449861 1.402483 -0.835473 188 148 97
-0.092564 1.396564 -0.444377 228 221 194
5.765879 4.134791 -2.698298 245 237 224
58.732243 -13.593820 3.874500 28 29 23
-4.363634 6.275012 -0.564764 134 144 154
1.799439 4.619858 -2.424745 121 122 127
5.038665 5.768372 -1.016746 0 0 0
6.067554 7.970680 1.416723 66 70 73
6.587931 8.264527 2.227585 197 194 170
-3.318869 3.032959 -5.995212 71 74 63
4.595951 10.735540 4.438026 219 206 187
-0.741562 4.635269 -4.138731 214 199 181
0.325616 2.414115 -0.981184 55 55 60
-0.846802 4.850167 -3.935425 146 173 127
-1.226487 5.018913 -3.528688 177 110 193
5.909460 3.721762 -3.283914 170 168 169
-2.059213 6.030174 -2.946905 35 51 23
30.706602 -17.563278 -25.177172 167 197 105
-0.966996 4.790496 -3.449947 94 102 104
0.162317 6.225002 -0.884806 0 0 0
-3.321649 5.966736 -0.958429 178 184 200
27.081980 -13.055343 -19.802418 153 199 220
0.516432 1.195329 -2.182939 145 156 166
0.344697 1.365891 -2.032910 152 165 174
-0.768576 2.836676 -0.609714 127 134 142
4.508305 3.018466 -3.877802 139 120 103
-0.035745 2.005956 -0.995729 171 152 110
0.088593 1.960167 -1.026224 203 184 149
0.223300 1.866893 -1.033848 165 128 86
0.416464 1.783455 -0.939399 166 123 72
-0.317667 3.179284 -0.250909 160 166 180
6.214367 3.583226 -3.443850 48 46 40
0.112072 3.135597 -0.272151 157 163 179
-0.219085 3.001641 -0.414097 150 154 165
5.266537 6.375389 -0.239817 183 182 177
-1.793301 5.687591 -3.318546 177 166 137
1.847055 4.744637 -2.366985 147 153 167
-1.285698 5.231893 -3.263204 21 22 16
-1.813618 6.493857 -2.306981 30 26 17
6.518930 3.697521 -3.283103 174 175 177
6.354099 9.108767 2.494042 255 250 231
-2.015685 5.860137 -1.022545 131 144 160
0.015564 1.444213 -1.651065 171 145 110
6.103340 6.833633 0.313973 117 123 112
-0.318682 1.449583 -2.260995 124 124 116
-0.693585 3.044792 -0.432817 120 128 138
-2.026969 5.278295 -3.755710 42 59 25
0.455326 0.367564 -2.950290 155 171 186
-1.171751 2.923468 -0.490073 148 155 171
6.627655 3.652375 -3.003671 0 0 0
-0.759887 4.552958 -4.272668 161 148 129
-3.746180 6.259710 -2.791674 30 31 25
6.164876 7.938610 1.562304 153 154 149
5.397911 4.467339 -2.377196 142 142 150
-1.892380 4.877696 -0.094121 101 101 99
-3.681259 5.316286 -1.636783 166 182 198
-0.907337 3.395662 -0.022885 122 129 139
-3.488301 6.202120 -2.899211 42 48 37
-2.442534 6.008305 -0.992108 188 198 207
-3.238019 6.074544 -2.216668 62 66 64
-2.117186 5.249523 -3.727406 80 96 59
-2.612201 5.615576 -1.293745 137 149 160
-1.714676 5.989470 -3.027357 153 153 141
-2.108297 6.302494 -2.776436 33 33 33
-2.894902 6.114667 -2.082283 50 54 53
-1.372205 5.633060 -2.833207 75 84 79
4.628471 5.208997 -1.644207 0 0 0
-1.587519 6.194244 -2.608279 61 68 72
-0.397976 3.229289 -5.721025 5 8 1
-3.770645 5.618805 -1.206463 133 143 153
-1.922452 6.441864 -2.400390 31 22 15
0.027348 3.639399 0.158896 164 167 182
0.058846 1.393919 -0.034466 203 153 118
0.048410 1.523205 -0.695786 191 179 139
-0.593991 3.017536 -0.403490 106 110 114
0.115078 1.420160 -1.799669 198 195 167
6.400371 7.641230 0.930437 0 0 0
-15.814491 10.082138 2.799041 84 77 69
28.768459 -6.614861 -13.165812 132 149 157
6.670103 4.554652 -2.684453 199 198 193
-0.094687 1.590866 -1.446557 0 0 0
-6.855352 15.685287 8.941473 171 161 149
4.515114 3.561152 -3.460598 217 214 198
-12.008630 10.213748 0.531168 107 83 51
83.525894 -10.251023 4.516334 44 56 56
-5.479816 2.092073 -6.931408 190 181 145
81.103516 -9.460457 6.351806 42 52 55
1.135116 1.553288 -1.823512 117 123 135
-2.309899 4.584256 -4.492257 77 78 66
-0.515313 1.908058 -0.653367 230 208 162
-0.314170 1.812324 -0.611210 161 128 78
-0.131592 1.498423 -0.280982 187 152 110
-0.458523 1.832935 -0.248310 228 206 165
-0.483231 2.847732 -0.593709 127 128 133
-0.325296 1.716695 -0.254560 226 194 153
1.180484 4.516500 -2.596334 45 48 51
4.540749 5.276918 -1.637085 116 120 121
-0.031842 3.066633 -0.340606 189 191 197
6.111424 5.758801 -0.821605 194 194 182
-0.053894 1.476838 -0.155659 216 186 148
-3.263729 5.467191 -3.605304 106 110 96
-0.420738 3.429079 -5.080277 19 22 11
68.872337 -13.510941 0.393287 94 99 93
-1.447891 4.938088 -3.781512 63 93 39
-0.736675 4.505009 -4.101251 0 0 0
5.482249 4.165691 -2.635152 0 0 0
61.702549 -14.635540 5.431895 39 36 30
-15.335660 6.405005 -3.452356 174 170 161
-1.342371 4.993719 -3.714526 82 109 64
-2.412146 6.116478 -3.045128 97 101 84
22.674982 -7.075101 -15.168430 130 163 118
-3.665922 5.274764 -1.664102 180 193 210
-2.193733 6.019372 -2.963383 70 79 62
-1.739294 1.288019 -7.176192 0 0 0
-4.499199 2.459110 -6.532820 61 79 58
0.090136 0.654307 -2.685241 137 153 168
5.665435 6.275535 -0.508044 118 125 135
-0.522134 3.492378 0.035099 151 159 180
0.457224 2.819243 -0.603444 102 105 114
0.629338 0.384610 -3.000034 116 133 141
-1.363212 1.198009 -7.690783 0 0 0
0.343638 1.071098 -0.249195 187 188 179
0.569008 0.435333 -2.965840 121 135 147
1.540991 -3.154854 -12.175144 0 0 0
-9.728355 3.940169 -5.322919 170 182 120
0.569008 0.435333 -2.965840 121 135 147
0.356571 0.565798 -2.825588 127 143 156
-1.467213 5.811451 -2.752105 65 72 77
-3.370102 -1.361939 -10.720255 0 0 0
-11.132586 12.892503 6.513061 159 149 137
0.801959 0.473985 -2.912252 136 148 162
4.651056 3.134092 -3.929639 131 119 105
-0.109135 0.981622 -0.020991 211 197 175
4.519122 5.086168 -1.604978 0 0 0
54.155148 -46.327164 -42.048420 143 167 77
-4.096187 2.719688 -6.282709 58 70 58
0.711929 0.716424 -2.785212 139 154 164
-3.057923 -0.898225 -9.159273 150 197 133
-4.216366 3.222055 -5.716737 125 131 124
0.083710 1.064094 -0.070063 206 164 124
5.400377 6.487929 -0.422260 0 0 0
26.005095 -13.301085 -17.316376 118 151 160
6.650316 10.299396 1.549353 0 0 0
-0.065774 1.076765 -2.317408 144 162 176
1.947209 -8.686569 -16.658131 89 117 65
1.079149 0.445661 -2.922293 118 131 140
-0.405209 2.139402 -0.090479 139 120 97
-5.232527 3.136405 -5.816670 74 89 60
5.433518 6.123261 -0.437275 185 188 186
28.867586 -14.675215 -21.759956 0 0 0
0.298598 0.992672 -2.413733 131 143 156
0.409861 0.925033 -2.456729 133 150 160
6.231097 3.648546 -3.211218 0 0 0
-0.140905 1.300228 -2.104561 130 143 159
69.703758 3.937015 6.124959 186 208 206
-0.241869 2.439939 -0.146448 163 124 95
-0.310690 2.267304 -0.105794 147 110 81
-15.807858 12.811914 6.664299 0 0 0
-0.637440 2.170073 -1.231012 107 120 136
-0.311322 2.267797 -0.104750 147 110 81
-4.191109 2.851335 -6.104116 120 123 103
0.057428 1.397867 -1.542867 220 198 161
-0.610277 2.683722 -0.534733 101 80 61
-4.798318 5.034814 -3.974530 106 114 93
-0.048773 2.739108 -0.604373 170 141 107
-10.605377 3.711848 -6.120477 238 224 157
24.154285 -1.388230 -10.159945 201 213 209
5.480259 3.302499 -3.657844 150 149 145
-0.298317 2.743612 -0.543864 87 61 38
-9.295713 6.158824 -3.409838 144 165 181
-0.033087 1.833259 -0.874031 181 158 117
6.975708 8.402423 1.824383 249 244 222
-0.913799 3.082449 -0.370217 127 138 152
-0.246369 3.389738 -0.034142 225 229 240
-1.633450 5.150138 -3.546526 174 181 165
5.370933 4.003502 -2.870876 0 0 0
3.588589 0.696382 -2.610630 176 189 196
-0.028022 1.459485 -0.118900 200 165 133
0.654526 1.800521 -1.462426 149 148 145
3.483032 0.771199 -2.543605 58 68 78
3.483032 0.771199 -2.543605 58 68 78
2.805444 5.356750 -1.818759 0 0 0
44.483631 -30.561649 -21.871668 52 50 53
-3.970487 4.325190 -4.629323 110 112 94
3.531057 0.781416 -2.537144 165 174 181
3.787724 0.667494 -2.643794 168 178 187
2.107857 -12.927263 -20.306190 180 205 163
-11.935003 10.249849 0.668284 96 84 57
31.862373 -18.222773 -25.069576 35 62 29
54.013863 -33.945190 -21.552252 109 103 131
-5.894194 5.064408 -4.000900 64 74 57
6.019358 3.601469 -3.321856 73 72 70
5.073072 6.975944 0.008800 0 0 0
69.689606 -11.788347 3.050285 227 244 23
0.978205 4.355244 -2.705035 76 75 83
5.335346 7.852534 1.043194 0 0 0
0.053034 1.641652 -0.717597 202 187 136
-1.750275 4.092819 0.588757 157 169 181
58.698845 -14.109050 3.142251 35 35 31
1.067115 4.647224 -2.432689 90 90 98
-0.127520 3.836731 0.456906 0 0 0
-0.043981 1.086153 -0.200301 183 145 101
5.730736 6.459097 -0.104768 98 100 98
5.519244 9.555172 2.385486 0 0 0
33.559055 -23.771875 -24.706942 72 99 81
-13.717280 6.231305 -3.724886 189 182 172
7.652498 7.599021 1.246395 139 156 161
0.579071 -0.190233 -3.727299 0 0 0
-0.472356 2.335325 -0.194335 164 115 82
-0.050993 1.080233 -0.170523 202 182 149
79.092026 3.756572 -1.101311 87 101 104
0.742752 1.244111 -2.165846 44 50 65
-3.874269 6.025902 -3.408692 0 0 0
-0.172624 1.843207 -3.187535 168 177 172
0.269126 2.963029 -5.716434 70 79 84
26.262455 -9.532206 -15.887070 137 184 200
-2.286911 6.201339 -2.948426 163 150 123
17.217840 -62.210686 -56.142609 40 37 22
-2.536143 6.416239 -0.439489 131 138 146
-0.541902 3.914038 -4.989809 166 160 154
-1.046316 2.948833 -0.516166 118 125 137
-3.681561 6.411834 -0.445173 161 171 181
-4.653699 6.448358 -0.442050 165 173 194
-0.906774 3.337055 -0.091611 143 153 165
-2.845334 6.438943 -0.436149 132 141 150
-5.238853 6.416698 -0.433496 128 140 152
-1.502149 5.391057 -3.308951 28 29 24
-0.904740 3.153007 -0.309995 132 142 154
-0.981463 4.249137 -4.295781 17 31 7
-0.913799 3.082449 -0.370217 127 138 152
-2.690432 6.483289 -0.417153 124 131 139
-1.112612 5.211867 -3.308332 92 102 112
82.404213 -7.033324 -2.528775 132 137 114
-5.601329 3.047632 -5.961865 88 100 78
-0.358044 2.683059 -0.420078 147 111 82
-1.203447 4.823153 -4.041955 12 20 8
5.678944 6.278129 -0.648322 89 92 101
-3.302299 -9.472345 -17.595612 103 119 92
0.321977 1.118319 -2.262615 62 71 86
4.047317 1.566002 -2.895846 87 83 80
-1.483478 4.959265 -3.771249 12 31 2
-0.785513 3.862782 0.361488 132 135 150
-0.105051 1.257244 -0.259581 192 151 104
67.954277 -11.226812 -2.593644 60 61 55
-0.084745 1.928509 -0.055987 218 189 155
0.548740 1.829243 -1.459051 153 162 168
-1.394666 4.872684 -3.803106 136 164 124
-4.727292 6.536253 -0.329510 137 146 154
0.247405 1.051152 -0.312937 37 37 35
-0.679008 2.945775 -0.480217 130 136 148
-1.309238 4.747861 -3.803290 41 43 30
-4.062698 6.509779 -0.315314 137 147 157
0.012517 1.009230 -0.081833 237 228 203
-0.807113 4.445964 -3.697677 76 82 84
-0.382032 2.103209 -0.082628 188 137 106
7.501183 10.245416 1.930842 0 0 0
5.110798 4.911935 -1.899114 0 0 0
-1.103962 5.045424 -3.530531 33 28 32
-0.858282 4.991899 -3.699898 77 85 87
